x,y,z
-34.469643,3.0070708,3.5471096
-34.49822,3.0186608,3.5718527
-34.516567,3.037074,3.605595
-34.556885,3.04071,3.6200457
-34.584274,3.0529654,3.6458445
-34.62516,3.0563903,3.6602225
-34.66603,3.0599515,3.6748967
-34.7062,3.0640907,3.6904373
-34.74634,3.068364,3.7062688
-34.792065,3.0692682,3.7178864
-34.83571,3.0716434,3.7315335
-34.86801,3.0811157,3.7543902
-34.905895,3.0872245,3.7730412
-34.94659,3.0917337,3.789772
-34.9757,3.1032386,3.8154888
-35.020622,3.1054335,3.8295183
-35.055336,3.1137364,3.8513837
-35.09141,3.121302,3.8724217
-35.122967,3.1315088,3.8968692
-35.177402,3.1288133,3.9053166
-35.21552,3.135508,3.9256265
-35.268574,3.1340227,3.9359252
-35.308884,3.1397696,3.9553373
-35.341564,3.1497695,3.98011
-35.382492,3.1553638,3.9995785
-35.42107,3.1623235,4.0208483
-35.46265,3.1677907,4.040428
-36.283775,2.7665684,3.5675921
-36.308826,2.784779,3.6047587
-36.326572,2.8066387,3.64636
-36.331425,2.8348746,3.6956058
-36.303497,2.8792787,3.7640705
-36.301735,2.9100835,3.8161821
-36.30265,2.93924,3.8662658
-36.306286,2.9667704,3.9143677
-36.31028,2.9938612,3.961904
-36.32109,3.0174336,4.005287
-36.336388,3.038692,4.045971
-36.337536,3.0664406,4.094161
-36.3513,3.088061,4.1352434
-36.3762,3.1044078,4.1703
-36.411568,3.1159425,4.199944
-36.51124,3.0985184,4.1969295
-36.628693,3.0737593,4.186124
-36.75163,3.0473282,4.1740103
-36.827408,3.0423462,4.1863832
-36.95873,3.0136514,4.172838
-37.028236,3.0123568,4.1901164
-37.165478,2.9825642,4.176509
-37.266777,2.9687927,4.1810274
-37.417767,2.934857,4.164231
-37.571095,2.9009252,4.1482153
-37.651257,2.8979106,4.1660137
-37.817608,2.860352,4.147542
-37.912933,2.8523567,4.1611075
-38.083847,2.814816,4.144221
-38.200638,2.7996478,4.151505
-38.30463,2.7901123,4.1652083
-38.473595,2.7560515,4.15432
-38.656334,2.7177598,4.140052
-38.791283,2.6986675,4.1461678
-38.958393,2.6682868,4.141714
-39.13932,2.6337667,4.134079
-39.326168,2.5981505,4.1263857
-39.476173,2.5770395,4.133918
-39.668568,2.5415044,4.12833
-39.83017,2.5180728,4.1354675
-40.01914,2.4858868,4.135211
-40.2456,2.4416919,4.124754
-40.44203,2.4092197,4.12658
-40.648956,2.3742745,4.1272955
-40.926414,2.3166137,4.1084995
-41.163765,2.2740602,4.105078
-41.428257,2.2238622,4.096284
-41.591858,2.2083511,4.119821
-41.859436,2.1598754,4.115533
-42.096443,2.1227736,4.122772
-42.408707,2.0630212,4.112189
-42.74495,1.9975163,4.098791
-43.08676,1.9322232,4.087782
-43.36634,1.8881074,4.0964246
-43.78707,1.8024299,4.0732794
-44.11757,1.7464664,4.076706
-44.362835,1.7178392,4.103864
-44.915665,1.5995176,4.063246
-45.458813,1.4872606,4.0311413
-45.909393,1.4049449,4.0253286
-46.426037,1.3062506,4.0106573
-46.931652,1.2136114,4.0040917
-47.51596,1.1017642,3.987555
-48.057106,1.0051825,3.9859614
-48.741768,0.8722861,3.9635706
-49.221703,0.7987428,3.9860487
-49.89196,0.6767962,3.9804468
-16.272453,1.1768537,2.7910342
-16.627254,1.2515473,2.8219404
-16.799797,1.2641966,2.7935252
-17.056953,1.3078427,2.7969484
-17.299973,1.3479061,2.7981896
-17.529839,1.3846054,2.797347
-17.789143,1.4334311,2.8101401
-17.999897,1.4658277,2.807414
-18.274288,1.5232539,2.831781
-18.412537,1.5309205,2.805591
-19.163658,1.7732539,3.0272322
-19.425909,1.8324597,3.0588074
-19.66536,1.8844609,3.0840697
-19.805998,1.8991144,3.0704222
-19.962711,1.9209137,3.065197
-20.144777,1.953779,3.0727944
-20.284203,1.9704747,3.0635748
-20.41729,1.9853504,3.0530167
-20.54834,2.0001173,3.042966
-20.58833,1.9776101,2.9919324
-20.612593,1.9484558,2.9335613
-20.615414,1.9100244,2.8647528
-20.743767,1.9252019,2.856711
-20.851727,1.9322469,2.8399696
-21.266468,2.0742917,2.9785604
-21.206228,2.0093331,2.8805299
-19.632557,1.2671189,1.9972267
-19.69163,1.247565,1.9473863
-19.675648,1.193882,1.8577952
-19.674404,1.146385,1.7752895
-20.374506,1.4243593,2.0771832
-20.405766,1.3943596,2.0169783
-22.133244,2.1680844,2.9149947
-22.178814,2.1525135,2.8763947
-22.297188,2.172171,2.8802986
-22.404789,2.187307,2.8792377
-22.498587,2.196281,2.8711462
-22.600792,2.2099535,2.8691478
-22.733986,2.2398083,2.887342
-22.818987,2.246119,2.8771992
-22.893703,2.247606,2.8614378
-22.964449,2.2473884,2.8438406
-23.011303,2.2349927,2.8113809
-22.996399,2.1900551,2.7385178
-22.956413,2.1311595,2.6480503
-22.985569,2.1086452,2.6029582
-22.071161,1.5727181,1.9115372
-22.071507,1.5289731,1.8375387
-22.078556,1.4884286,1.7674999
-22.863413,1.8833795,2.2511697
-22.902248,1.8642874,2.2101474
-22.901062,1.8222487,2.1398478
-22.853971,1.7531655,2.034737
-22.856682,1.7120626,1.9653497
-22.86875,1.6759641,1.9023461
-22.863523,1.6291599,1.8254371
-22.966686,1.6026826,1.7587214
-23.040436,1.5581768,1.6689272
-23.034735,1.5090399,1.5888214
-23.049944,1.472445,1.5251131
-23.018423,1.405519,1.4213295
-23.031105,1.3660905,1.3537102
-23.02076,1.3111205,1.2654262
-23.018822,1.2608688,1.1832752
-23.01645,1.2095962,1.0996566
-23.011024,1.1555052,1.0121598
-23.01582,1.1075575,0.9327717
-23.010998,1.0522926,0.84347486
-23.014343,1.0018599,0.7605586
-22.981129,0.924958,0.6418462
-33.051178,1.2307138,0.4883685
-33.07321,1.2844567,0.5725031
-33.065136,1.3837953,0.7234831
-33.029255,1.522677,0.9322767
-33.050766,1.5697863,1.0064974
-33.069542,1.6195216,1.084549
-33.077583,1.6834555,1.1833348
-33.021793,1.8372383,1.4132695
-33.039974,1.881422,1.4830074
-33.040306,1.9491642,1.5870719
-33.02356,2.0382378,1.7221231
-33.008842,2.1218925,1.8491478
-33.008133,2.1845205,1.9454746
-33.040062,2.2028372,1.9773707
-33.09269,2.1942275,1.9702439
-33.112736,2.2272198,2.0235348
-33.136288,2.255042,2.0693402
-33.144558,2.3009357,2.1412964
-33.17878,2.314343,2.1662712
-33.21018,2.3309073,2.1958566
-33.292892,2.3401864,2.2208142
-33.061966,2.7918,2.892488
-33.09591,2.7988207,2.908083
-33.131653,2.8039129,2.9209847
-33.15196,2.8252,2.9570875
-33.170895,2.8475094,2.9946613
-33.203655,2.8553147,3.0115843
-33.13853,2.9615612,3.1686063
-33.132412,3.0066311,3.2384048
-33.254612,2.9249296,3.1282725
-33.289497,2.9299765,3.1414485
-33.316566,2.9425323,3.1653209
-33.34186,2.9566233,3.1914048
-33.3648,2.9727283,3.220367
-33.35071,3.0226812,3.2970304
-33.34155,3.0671058,3.3658018
-33.39121,3.0578048,3.3590374
-33.435085,3.0540268,3.3601532
-33.47798,3.0513656,3.3629456
-33.532143,3.0391872,3.3525481
-33.56972,3.0416572,3.3627434
-33.609573,3.0423217,3.370514
-33.650036,3.0426357,3.3778944
-33.68881,3.0445108,3.387545
-33.728184,3.046033,3.3968015
-33.76464,3.0500507,3.4096074
-33.806396,3.049925,3.416781
-33.854183,3.0452254,3.417759
-33.89249,3.0482085,3.429439
-33.935642,3.0475674,3.4362388
-33.983143,3.043806,3.4388795
-34.028313,3.0420723,3.444428
-34.075436,3.0391042,3.4484167
-34.125175,3.0344555,3.4502497
-34.171913,3.0322866,3.4555988
-34.218117,3.03074,3.461925
-34.26825,3.0266137,3.4648914
-34.313366,3.0263107,3.4731688
-34.365036,3.0216281,3.4756732
-34.41686,3.017135,3.4785895
-34.46159,3.0177844,3.4885602
-34.491135,3.0289023,3.5126657
-34.505177,3.0503716,3.550653
-34.52959,3.064717,3.5791492
-34.55986,3.075122,3.6024542
-34.59134,3.0847254,3.624765
-34.62885,3.0904584,3.6420345
-34.66768,3.0954337,3.6584063
-34.711327,3.0974822,3.6710377
-34.75708,3.0983782,3.6822867
-34.802177,3.0998693,3.6944551
-34.843067,3.104105,3.7103395
-34.88748,3.1063333,3.7237334
-34.9312,3.1091447,3.7380195
-34.965576,3.1176388,3.7597866
-34.986115,3.1342847,3.7921557
-35.04346,3.1294594,3.796958
-35.079033,3.137453,3.8183832
-35.127735,3.1380358,3.830442
-35.166138,3.1446223,3.8503075
-35.22454,3.1401548,3.8562574
-35.251705,3.1532302,3.8846068
-35.2922,3.1589906,3.9037971
-35.319805,3.1718318,3.932011
-35.379097,3.1676764,3.93901
-35.41183,3.1779127,3.9641829
-35.45746,3.1814075,3.9810653
-35.4792,3.1974833,4.0136876
-36.30118,2.8015354,3.5379071
-36.3193,2.823329,3.5795755
-36.31363,2.8569746,3.6357718
-36.296394,2.896009,3.698442
-36.288754,2.9298034,3.754589
-36.29719,2.9553268,3.80062
-36.306015,2.980434,3.8461223
-36.30883,3.0082045,3.894793
-36.322445,3.0305657,3.9369473
-36.338936,3.0514057,3.977292
-36.353477,3.0730171,4.018566
-36.3685,3.094258,4.059407
-36.378284,3.1177518,4.1029005
-36.40083,3.1352777,4.1394105
-36.452774,3.1395423,4.16057
-36.52124,3.1366556,4.173669
-36.592304,3.132959,4.186129
-36.711018,3.10885,4.1755533
-36.819324,3.0899835,4.1715026
-36.93138,3.070172,4.166893
-37.01263,3.0640771,4.1782484
-37.10335,3.0544322,4.186002
-37.235928,3.0279133,4.175411
-37.38692,2.9946532,4.158023
-37.46751,2.9910016,4.173931
-37.640965,2.9503355,4.1497912
-37.700546,2.9562125,4.1770535
-37.875088,2.9169066,4.155863
-38.015636,2.892004,4.151011
-38.124447,2.8802295,4.1608486
-38.286774,2.8485227,4.1501784
-38.428654,2.8255658,4.1495447
-38.54459,2.813181,4.1606646
-38.72514,2.7773767,4.148183
-38.89394,2.7469943,4.142246
-39.083683,2.7099717,4.130474
-39.224247,2.691846,4.1388264
-39.359787,2.6762886,4.150513
-39.54931,2.6423607,4.144706
-39.794167,2.5901637,4.1219983
-39.97238,2.5625606,4.124692
-40.185364,2.5240355,4.1178517
-40.384506,2.491454,4.1179442
-40.60868,2.4515905,4.1122966
-40.832596,2.4131122,4.109282
-41.045265,2.3796208,4.1122394
-41.29322,2.3358264,4.107004
-41.487778,2.3106825,4.1202435
-41.728676,2.271801,4.122309
-42.03096,2.2148829,4.1098404
-42.2584,2.1831133,4.1213713
-42.535355,2.137272,4.122123
-42.865852,2.076604,4.111946
-43.25301,2.0006752,4.091019
-43.614235,1.9347582,4.081003
-43.946518,1.8794793,4.0821395
-44.26179,1.8310454,4.091045
-44.648037,1.7637691,4.087016
-45.203342,1.6501732,4.0491962
-45.67923,1.5623229,4.035183
-46.179855,1.4702282,4.0212736
-46.661835,1.386137,4.0168977
-47.247116,1.2763932,3.99711
-47.799637,1.178844,3.9903593
-48.410366,1.068764,3.978777
-49.040512,0.9569478,3.9705033
-49.77494,0.8212919,3.950749
-16.074,1.2481456,2.7754283
-16.348736,1.292072,2.7770166
-16.711742,1.3677888,2.8121428
-16.946066,1.4012289,2.8063636
-17.209282,1.4460857,2.8135424
-17.411934,1.4711084,2.8016677
-17.645218,1.508172,2.8033886
-17.88578,1.5492108,2.8105106
-18.127344,1.592032,2.8207822
-18.345196,1.6275766,2.8245711
-18.557093,1.6621878,2.8284807
-19.259462,1.882015,3.0334392
-19.587955,1.9651651,3.0936184
-19.709661,1.9713533,3.0712914
-19.881464,1.9975142,3.0715342
-20.025084,2.0136728,3.0615306
-20.206224,2.0454202,3.0695968
-20.353264,2.06468,3.0645285
-20.500736,2.0849493,3.0612936
-20.57877,2.0778499,3.0276704
-20.600826,2.0480735,2.968471
-20.625027,2.0190222,2.91013
-20.679153,2.0023491,2.8661156
-20.83086,2.027024,2.870286
-20.92016,2.0259686,2.8451214
-21.213436,2.1132677,2.9239473
-18.918509,1.0755422,1.6780663
-19.66489,1.3552606,1.9810662
-19.650608,1.3031497,1.892745
-19.687172,1.2732816,1.8308463
-19.669506,1.2187207,1.7393575
-20.400387,1.5060327,2.0602503
-20.426662,1.4739268,1.9974322
-22.135696,2.2268941,2.8904243
-22.231802,2.2350755,2.8809958
-22.328465,2.2440398,2.8729086
-22.432022,2.2568502,2.8699417
-22.539211,2.2720225,2.8703089
-22.648384,2.288813,2.873114
-22.76813,2.31151,2.8837204
-22.860823,2.321463,2.8788486
-22.935377,2.3227806,2.8634748
-22.958815,2.2983713,2.8159137
-22.976482,2.2708232,2.7644057
-22.902775,2.1954932,2.6521935
-22.970524,2.1933224,2.6328306
-22.979902,2.160444,2.5744123
-22.097645,1.6491301,1.9018898
-22.101551,1.6077862,1.8304787
-22.860733,1.9791472,2.2921405
-22.888706,1.954318,2.2436686
-22.905272,1.9229455,2.1867285
-22.926027,1.8936248,2.132451
-22.908604,1.8422894,2.049386
-22.88485,1.7865887,1.9604292
-22.841799,1.6753559,1.7821698
-23.054602,1.6702662,1.7285972
-23.05282,1.6246736,1.6526213
-23.03098,1.5660586,1.559135
-23.06139,1.5391824,1.5080118
-23.032455,1.4746184,1.4062724
-23.02589,1.4232914,1.322154
-23.01212,1.366569,1.2306261
-23.018265,1.3219497,1.1553321
-23.022533,1.2754805,1.077455
-23.016336,1.2213929,0.9891372
-23.01642,1.1707048,0.90533066
-23.011526,1.1158822,0.8157768
-23.009602,1.062253,0.7277374
-23.006723,1.0071397,0.63755417
-22.984316,0.93745947,0.52722645
-33.02726,1.3200891,0.52146196
-33.033268,1.3980367,0.64256763
-33.077797,1.4133875,0.6704893
-33.01463,1.5929458,0.94255733
-33.036232,1.6391008,1.0161777
-33.07213,1.6627762,1.0564289
-33.041294,1.7824869,1.23913
-33.011944,1.8961892,1.4127359
-33.03776,1.929066,1.4665041
-33.03992,1.9936061,1.5671163
-33.02696,2.076682,1.6950521
-33.016914,2.153378,1.8134437
-33.028107,2.1999972,1.8873553
-33.045135,2.2378163,1.9482641
-33.078007,2.2545552,1.9781222
-33.11795,2.262131,1.9945483
-33.156124,2.2718556,2.0142026
-33.14525,2.3408966,2.1210008
-33.18802,2.3440588,2.1310744
-33.2178,2.3625913,2.1637497
-33.245487,2.3832054,2.1995077
-33.282093,2.393234,2.2198224
-33.085236,2.8027837,2.8393493
-33.104397,2.825877,2.8783383
-33.106476,2.866447,2.9427094
-33.14909,2.8641317,2.944838
-33.16993,2.8842945,2.9796185
-33.176632,2.9183476,3.0345054
-33.14144,2.9933524,3.1485157
-33.182003,2.9922116,3.1524768
-33.217564,2.996112,3.1637936
-33.26898,2.9849207,3.15347
-33.31757,2.9768465,3.1477585
-33.336597,2.9967263,3.1822824
-33.292976,3.0739832,3.2990308
-33.33731,3.0694962,3.2985954
-33.395775,3.052591,3.2805295
-33.423695,3.063381,3.3021379
-33.45692,3.0694304,3.317041
-33.492836,3.0731761,3.3287363
-33.529846,3.0760727,3.3393064
-33.56572,3.0800345,3.3514705
-33.604977,3.081253,3.3598328
-33.646553,3.080703,3.365789
-33.68704,3.0812328,3.3733716
-33.72815,3.0814242,3.380577
-33.76814,3.0826864,3.389391
-33.809937,3.082675,3.3965154
-33.85418,3.0809388,3.4013295
-33.8949,3.0821385,3.410365
-33.93687,3.0825455,3.418397
-33.983784,3.0794017,3.4215894
-34.029587,3.0773425,3.4264178
-34.076733,3.0745258,3.4303198
-34.127125,3.0695932,3.4314208
-34.17389,3.067572,3.4366903
-34.223938,3.0634494,3.43919
-34.272846,3.060411,3.443325
-34.31801,3.060247,3.4515486
-34.367134,3.0575495,3.4564238
-34.416374,3.0550282,3.4616804
-34.46375,3.0540187,3.4691434
-34.49861,3.0615969,3.4884338
-34.516697,3.0803146,3.5229406
-34.53379,3.0994895,3.5580802
-34.56409,3.1099157,3.5814018
-34.599686,3.1169345,3.600193
-34.638626,3.1218882,3.6162963
-34.679596,3.1256707,3.6309319
-34.722637,3.1282973,3.644133
-34.767082,3.1302142,3.6565099
-34.812252,3.1318588,3.668655
-34.855335,3.1349394,3.6828403
-34.897705,3.1385927,3.6979103
-34.941498,3.1415477,3.7121816
-34.978817,3.148436,3.7317634
-35.019684,3.1533532,3.7488594
-35.074337,3.1504984,3.7558942
-35.10716,3.1602874,3.779622
-35.17149,3.1524327,3.7804642
-35.204964,3.1620872,3.8042555
-35.239803,3.1710246,3.827209
-35.288734,3.1723406,3.8404279
-35.312897,3.187201,3.8712182
-35.354218,3.1928463,3.89025
-35.393208,3.1998382,3.9111285
-35.442814,3.2013736,3.925181
-35.47327,3.2130237,3.9522278
-36.291588,2.8209102,3.469162
-36.301563,2.8469539,3.516336
-36.292427,2.8823597,3.5752287
-36.29129,2.91336,3.6285028
-36.29042,2.943891,3.681116
-36.289825,2.9739583,3.73308
-36.2927,3.0020318,3.7825112
-36.298298,3.028523,3.8299398
-36.31387,3.0500436,3.8712378
-36.331516,3.0704422,3.9111762
-36.348843,3.0908608,3.9511576
-36.366665,3.110926,3.9907303
-36.382545,3.1317546,4.0312443
-36.410374,3.147068,4.065161
-36.50861,3.130938,4.0616436
-36.572567,3.1305504,4.077246
-36.602642,3.145278,4.110965
-36.68654,3.1366842,4.1173534
-36.78651,3.1216545,4.1165805
-36.81476,3.1376748,4.1523876
-36.894917,3.131846,4.1629844
-36.989586,3.1203878,4.1674523
-37.09045,3.1069064,4.1700354
-37.18225,3.0976963,4.177948
-37.286224,3.084064,4.1812763
-37.443596,3.0496485,4.161705
-37.569824,3.0285785,4.157844
-37.697334,3.007754,4.154872
-37.80449,2.9955864,4.1620903
-37.89454,2.990581,4.17769
-38.08144,2.9491577,4.154006
-38.186935,2.9395955,4.165802
-38.329475,2.916768,4.16385
-38.51028,2.8806357,4.14842
-38.689983,2.8460119,4.1355467
-38.80835,2.8346725,4.148135
-38.972237,2.8076503,4.144952
-39.121475,2.7867727,4.1490154
-39.312195,2.7521727,4.139767
-39.48203,2.725956,4.1401167
-39.66221,2.697146,4.138776
-39.87353,2.6587696,4.128847
-40.07287,2.6256719,4.1253595
-40.26371,2.59655,4.1269183
-40.47413,2.562049,4.1243176
-40.73976,2.5107217,4.106685
-40.945976,2.480159,4.1104803
-41.169174,2.4453197,4.1114383
-41.44616,2.3947234,4.098964
-41.66784,2.363043,4.105697
-41.87251,2.3378565,4.11972
-42.156136,2.289583,4.1140685
-42.469215,2.2339935,4.1036367
-42.745075,2.1913562,4.106632
-43.09973,2.126882,4.092307
-43.492645,2.053215,4.072348
-43.82495,1.9993957,4.0718307
-44.189877,1.9380728,4.0671973
-44.428986,1.9145167,4.0961943
-44.955196,1.8116,4.062145
-45.468704,1.7152395,4.03695
-45.94105,1.6331055,4.0265155
-46.3691,1.5656476,4.0307417
-46.98563,1.449965,4.001187
-47.52774,1.3575246,3.9934263
-48.130928,1.2520807,3.9799924
-48.72877,1.1513886,3.974359
-49.438534,1.0253282,3.9551864
-49.899433,0.96625495,3.9876032
-16.683239,1.4885786,2.8508382
-16.79802,1.4800427,2.8028307
-17.009819,1.5049314,2.790247
-17.289154,1.5541606,2.8043666
-17.514915,1.5864661,2.802032
-17.90645,1.6781414,2.864276
-18.125103,1.7111125,2.8654432
-18.260847,1.7156906,2.8369493
-18.429054,1.732661,2.8226337
-19.213924,1.9756694,3.0576034
-19.379383,1.9957602,3.0500512
-19.626501,2.0471978,3.0782232
-19.76469,2.0591877,3.0633993
-19.945091,2.087962,3.0681581
-20.098957,2.1076112,3.0634232
-20.265312,2.1329765,3.065936
-20.376171,2.1375694,3.0453653
-20.543331,2.165,3.051671
-20.585434,2.1434245,3.0018048
-20.610004,2.1147723,2.943798
-20.629932,2.084086,2.8834395
-20.721996,2.082947,2.857986
-20.82995,2.088832,2.8412466
-21.045643,2.1405594,2.8796492
-21.14943,2.1462297,2.8638153
-19.688961,1.4815214,2.0407457
-19.68615,1.4353495,1.9591613
-19.642914,1.3710408,1.8554034
-19.618816,1.3143761,1.7606726
-20.382166,1.6085167,2.0962143
-21.843315,2.223589,2.830875
-22.074768,2.2915146,2.8951373
-22.145195,2.2871222,2.8705196
-22.252539,2.3001525,2.8679
-22.359543,2.3136446,2.8662796
-22.466988,2.3279727,2.8661304
-22.569315,2.3404882,2.86411
-22.677614,2.356488,2.8668976
-22.787083,2.3737197,2.8716717
-22.857859,2.3725557,2.8533688
-22.931677,2.3732138,2.837644
-22.96904,2.3558762,2.7990246
-22.983564,2.3269095,2.7454815
-22.957214,2.2767043,2.664414
-22.981281,2.2519476,2.6162243
-22.044601,1.7239175,1.9118099
-22.086487,1.7031419,1.866765
-22.112177,1.673657,1.8103814
-22.856892,2.0320199,2.2645874
-22.890068,2.010091,2.2197862
-22.910297,1.9809141,2.1654449
-22.910458,1.9403052,2.095921
-22.909866,1.8987751,2.0250864
-22.891136,1.8464227,1.9397049
-22.871914,1.793042,1.8527813
-22.891693,1.7614999,1.7950263
-22.96408,1.7604463,1.7783341
-23.057142,1.7283666,1.7050076
-23.02869,1.6670303,1.6070075
-23.057781,1.6398606,1.5553031
-23.067944,1.6007802,1.4873786
-23.034792,1.5342138,1.3818121
-23.030224,1.4845755,1.2992291
-23.02996,1.4369588,1.2193127
-23.015053,1.3792465,1.1253986
-23.019981,1.3335345,1.0478973
-23.017757,1.2824802,0.9629297
-23.027052,1.2383163,0.88741446
-23.013515,1.178215,0.7896924
-23.018711,1.1298625,0.7081809
-23.028034,1.0836303,0.6295519
-23.016994,1.0226119,0.53018475
-33.02084,1.378767,0.512743
-33.038643,1.4372551,0.60593843
-33.086647,1.4473422,0.6260934
-33.03172,1.6127694,0.8804884
-33.02912,1.6948631,1.0090871
-33.066322,1.7162905,1.0462832
-33.027718,1.8457196,1.2459536
-33.068398,1.8593588,1.271409
-33.0389,1.9698234,1.4423103
-33.017994,2.0651243,1.590282
-33.036446,2.104843,1.654788
-33.050198,2.1496618,1.7269225
-33.03029,2.2368214,1.8623872
-33.05493,2.2646587,1.9090219
-33.071312,2.3021798,1.9701357
-33.10625,2.315828,1.9956112
-33.114285,2.361965,2.0695739
-33.147957,2.376202,2.0959835
-33.181377,2.3905122,2.122551
-33.217136,2.401874,2.144785
-33.250072,2.4163325,2.1716728
-33.28808,2.424849,2.189796
-33.30439,2.4574506,2.2436733
-33.14578,2.8591814,2.8646293
-33.131084,2.916181,2.9539108
-33.164867,2.9229014,2.9691682
-33.181828,2.9463737,3.0090833
-33.218227,2.950296,3.0203314
-33.236004,2.9723606,3.0582237
-33.282303,2.9667182,3.0555944
-33.30723,2.9815977,3.083054
-33.270237,3.054069,3.1945615
-33.304485,3.0592341,3.2078185
-33.302746,3.0971959,3.2688584
-33.38082,3.0626593,3.2245064
-33.4112,3.07148,3.243288
-33.440907,3.0808537,3.2629256
-33.47321,3.087924,3.2792845
-33.50708,3.0936599,3.293779
-33.548153,3.0933483,3.2996216
-33.584774,3.0969386,3.3111787
-33.6282,3.095003,3.3148718
-33.666565,3.0974267,3.3249292
-33.699722,3.1041691,3.3412633
-33.741554,3.1040268,3.347815
-33.79051,3.0984578,3.3467174
-33.83726,3.0949123,3.3486342
-33.88116,3.0938323,3.3541827
-33.929962,3.0892284,3.354834
-33.972847,3.0893729,3.3623514
-34.015785,3.0896611,3.3701792
-34.060013,3.089184,3.3770337
-34.105556,3.0879512,3.382937
-34.154945,3.0841691,3.3853703
-34.203217,3.081462,3.3894496
-34.253513,3.077583,3.3920164
-34.298824,3.0774565,3.3999743
-34.34614,3.0761516,3.4064069
-34.39615,3.0732417,3.4107308
-34.44562,3.0709534,3.4160604
-34.49455,3.0692828,3.4223857
-34.540924,3.069538,3.4315157
-34.575325,3.077807,3.4518447
-34.61299,3.0840037,3.4693966
-34.64924,3.0911837,3.4883943
-34.662914,3.1126962,3.5271473
-34.696114,3.1217556,3.5488486
-34.72781,3.1317658,3.5719242
-34.767704,3.1367567,3.5882325
-34.812454,3.1389108,3.6007924
-34.853012,3.1437538,3.6171246
-34.89424,3.1483116,3.6331816
-34.943275,3.1484048,3.6433315
-34.9981,3.1453445,3.6493888
-35.04441,3.14747,3.6625733
-35.091473,3.1493485,3.6755643
-35.124725,3.1592062,3.699338
-35.179085,3.1572967,3.7075462
-35.22692,3.1592598,3.7210646
-35.241463,3.179639,3.759077
-35.289917,3.1814618,3.7726326
-35.35637,3.1738248,3.773912
-35.38917,3.1844423,3.7993336
-35.429398,3.1911807,3.8197746
-35.468037,3.1988468,3.8415418
-35.517292,3.2011285,3.8564367
-35.545063,3.214564,3.8859107
-36.31983,2.8507123,3.4294086
-36.28261,2.9003491,3.507187
-36.29595,2.9242506,3.551805
-36.29559,2.954668,3.604721
-36.30022,2.9823356,3.6540747
-36.305183,3.0095713,3.702836
-36.31922,3.0322251,3.745779
-36.3337,3.0545025,3.788249
-36.35183,3.074913,3.8283858
-36.36883,3.095717,3.8690329
-36.387936,3.1154282,3.908341
-36.401863,3.1373727,3.9504313
-36.46518,3.137032,3.9651296
-36.56132,3.1224189,3.9626021
-36.60107,3.1331515,3.99136
-36.65224,3.1389925,4.014316
-36.757248,3.1218307,4.009693
-36.806877,3.1289103,4.0346484
-36.879833,3.1263046,4.0482073
-36.981415,3.11209,4.0482616
-37.067326,3.1049495,4.0571327
-37.119625,3.112029,4.0831165
-37.187126,3.1131186,4.102288
-37.25552,3.1141467,4.1216683
-37.293198,3.1276855,4.1558247
-37.357273,3.1308923,4.1782146
-37.48847,3.108219,4.1712456
-37.62703,3.0834913,4.1625676
-37.757423,3.0627184,4.159035
-37.890854,3.041565,4.155706
-38.023834,3.0213583,4.1540866
-38.122223,3.014731,4.168189
-38.289257,2.9834447,4.1555815
-38.412857,2.9689274,4.162181
-38.593296,2.9346747,4.1479445
-38.72741,2.9179785,4.153594
-38.910748,2.8847065,4.142169
-39.062607,2.8634853,4.1445255
-39.2256,2.8392808,4.1445284
-39.390846,2.8152351,4.145563
-39.54395,2.7962217,4.1527042
-39.77136,2.7532296,4.1359844
-39.976913,2.7188113,4.1292796
-40.18036,2.6862717,4.1256175
-40.382553,2.6552994,4.124667
-40.628128,2.6115792,4.1122017
-40.84886,2.5771601,4.1102962
-41.032616,2.5555816,4.1221676
-41.30032,2.5089593,4.1109548
-41.493294,2.4868062,4.124668
-41.759556,2.4434478,4.119503
-42.03669,2.3983347,4.114307
-42.295994,2.3600826,4.1171265
-42.591217,2.3127213,4.11323
-42.90394,2.2619379,4.1080875
-43.29771,2.1896286,4.0857754
-43.67854,2.1232595,4.071197
-43.981613,2.0808992,4.0798583
-44.25055,2.0496793,4.0999823
-44.663,1.9804717,4.089883
-45.249012,1.8664453,4.0453815
-45.69679,1.7929037,4.0378904
-46.127594,1.7263637,4.0390635
-46.593445,1.6530061,4.0378036
-47.20659,1.5440261,4.0121336
-47.758354,1.4542224,4.005401
-48.361816,1.3543799,3.9950838
-49.027668,1.2422643,3.9801092
-49.75711,1.1181161,3.9613438
-16.419968,1.5306449,2.8169198
-16.709522,1.5777507,2.827148
-16.896366,1.5926354,2.804738
-17.068497,1.6035879,2.7790737
-17.48854,1.6990027,2.8452897
-17.773735,1.7511263,2.8667269
-18.033888,1.7963395,2.8820753
-18.167946,1.7992342,2.852116
-18.29655,1.8008566,2.821374
-18.500057,1.8296931,2.821638
-19.173674,2.0284128,3.0140038
-19.454262,2.0892956,3.053773
-19.697826,2.138398,3.0815063
-19.838478,2.150928,3.0684857
-20.010075,2.1757834,3.0703292
-20.164684,2.1952186,3.0666804
-20.323162,2.2170064,3.066485
-20.433876,2.2212923,3.0464592
-20.556412,2.2307293,3.0329924
-20.58907,2.2054482,2.978836
-20.611898,2.1761909,2.9200125
-20.641102,2.1493428,2.864108
-20.758486,2.1581604,2.8512735
-20.895784,2.1757581,2.8495693
-21.074532,2.2113032,2.870308
-21.139046,2.2002347,2.8347807
-21.413088,2.27785,2.908523
-21.624311,2.3306513,2.9528413
-21.666265,2.311983,2.9093995
-21.75035,2.311666,2.8889475
-21.858868,2.3224747,2.8827353
-21.946728,2.3247118,2.8661747
-22.06606,2.3414922,2.868299
-22.173672,2.3536754,2.8650675
-22.285772,2.3685284,2.8656473
-22.395884,2.3831272,2.8663359
-22.498447,2.3948555,2.8637643
-22.60148,2.4073937,2.8626204
-22.73968,2.4372904,2.8842893
-22.82457,2.4424822,2.8744626
-22.88034,2.4339614,2.8470945
-22.942406,2.4286938,2.8241444
-22.985897,2.4144402,2.789616
-22.989515,2.38025,2.7289925
-22.960754,2.3293066,2.6462078
-22.979435,2.3019097,2.5943837
-21.99617,1.756856,1.8553405
-22.042065,1.7379253,1.8126483
-22.064194,1.7064581,1.7533169
-22.860699,2.086988,2.2459955
-22.894575,2.0655088,2.2017307
-22.897747,2.0272405,2.1349006
-22.907467,1.992116,2.07225
-22.911945,1.9536972,2.0050926
-22.850246,1.8777416,1.8868556
-22.871632,1.8475835,1.8306904
-22.91795,1.8313987,1.7936225
-22.943062,1.8029635,1.7398748
-23.032545,1.811856,1.7374148
-23.029995,1.766974,1.6611857
-23.044392,1.7315876,1.5979681
-23.043377,1.6865065,1.521306
-23.06535,1.6548042,1.4631119
-23.0383,1.5926104,1.3625231
-23.017899,1.533566,1.2661285
-23.032593,1.4956534,1.1990805
-23.003399,1.4294002,1.0923266
-23.013702,1.3874178,1.0194187
-23.016104,1.3397496,0.9384651
-23.01343,1.2880664,0.85177135
-23.003178,1.2305837,0.75678635
-23.021423,1.1912916,0.6874056
-23.035841,1.1488926,0.6135955
-23.010494,1.078681,0.5002351
-33.012653,1.4350927,0.50645685
-33.028023,1.4966998,0.6054435
-33.091423,1.483037,0.5893259
-33.03764,1.6454692,0.8423543
-33.03203,1.7315061,0.978497
-33.051548,1.7784369,1.0548868
-33.02536,1.8887856,1.2279296
-33.073357,1.8921473,1.237854
-33.034286,2.0149143,1.4295874
-33.028435,2.08903,1.5471301
-33.036716,2.142182,1.6327257
-33.021328,2.2246594,1.7627978
-33.029026,2.2750823,1.8441243
-33.052864,2.3037333,1.8924079
-33.05018,2.3646398,1.9895468
-33.11321,2.3434913,1.9624691
-33.101772,2.4128556,2.0723462
-33.146694,2.4134843,2.07832
-33.187813,2.4187374,2.0913577
-33.216743,2.4380562,2.1256676
-33.287712,2.460962,2.1707196
-33.300434,2.497286,2.2306995
-33.2476,2.6974444,2.5470781
-33.138252,2.8988745,2.8589668
-33.133106,2.9456174,2.9339604
-33.17423,2.9450548,2.9383407
-33.184902,2.9747052,2.9878044
-33.203938,2.995614,3.0242438
-33.20046,3.0377748,3.0922675
-33.213898,3.0629852,3.1350694
-33.24686,3.069459,3.150094
-33.271957,3.0832028,3.1759396
-33.31514,3.0802853,3.1771903
-33.36425,3.0722728,3.1710181
-33.394375,3.081522,3.190414
-33.422203,3.0927398,3.2127585
-33.448215,3.1054363,3.2373214
-33.482246,3.111128,3.2516398
-33.52231,3.111756,3.2586002
-33.55738,3.11672,3.271999
-33.59692,3.118056,3.2801666
-33.63592,3.119981,3.2892814
-33.676086,3.1211026,3.2973123
-33.726707,3.1140385,3.2935262
-33.76645,3.1159036,3.3028407
-33.808563,3.1160598,3.3097672
-33.852516,3.1149824,3.3150077
-33.895958,3.114509,3.3212285
-33.942486,3.1119099,3.3244872
-33.98548,3.1121888,3.3320093
-34.0316,3.110355,3.3365984
-34.074116,3.1113782,3.3454046
-34.121033,3.1094067,3.3500247
-34.169304,3.1067069,3.3537235
-34.218964,3.1032882,3.356523
-34.26876,3.100048,3.3597093
-34.31356,3.100518,3.3683047
-34.363586,3.0976226,3.372239
-34.415035,3.0940316,3.3753238
-34.465973,3.0910642,3.3794308
-34.513084,3.0908904,3.3876185
-34.552963,3.0956454,3.4028692
-34.59281,3.1005287,3.4183974
-34.635315,3.103821,3.4317956
-34.68189,3.1046891,3.4419122
-34.72919,3.105293,3.4517875
-34.76626,3.1124306,3.4708862
-34.821896,3.1082728,3.4743886
-34.867264,3.1106372,3.4870915
-34.913353,3.11274,3.499557
-34.966503,3.110833,3.5066223
-35.00844,3.1157706,3.5232573
-35.04607,3.12333,3.5436006
-35.059986,3.1445963,3.5827913
-35.085064,3.1593008,3.6130261
-35.130928,3.1622267,3.627275
-35.166603,3.1710014,3.6495943
-35.213898,3.1734176,3.6633978
-35.24721,3.1836498,3.6878896
-35.290764,3.1883738,3.7050495
-35.345467,3.1872706,3.7145157
-35.375546,3.1994677,3.7419496
-35.410725,3.2089841,3.7658772
-35.45638,3.213111,3.7827306
-35.5005,3.2181828,3.8009748
-35.54459,3.223412,3.819559
-36.269554,2.8859603,3.387011
-36.275253,2.9140449,3.4373612
-36.28591,2.9393988,3.484098
-36.29303,2.966254,3.532771
-36.298916,2.9934473,3.581849
-36.309074,3.0183334,3.6279001
-36.314075,3.045446,3.676803
-36.340874,3.062069,3.7121854
-36.354652,3.0846896,3.755302
-36.367268,3.1076775,3.7988844
-36.38354,3.1288242,3.8401232
-36.425365,3.138315,3.8666296
-36.513386,3.127284,3.8674192
-36.584553,3.1242065,3.8785338
-36.625538,3.1346855,3.9068527
-36.688606,3.1356852,3.923516
-36.782295,3.1238375,3.92451
-36.804943,3.142676,3.9637077
-36.893097,3.1339216,3.969103
-37.009068,3.1140766,3.961323
-37.054142,3.1241348,3.9903781
-37.123535,3.1243968,4.007746
-37.171844,3.1334794,4.0360026
-37.2608,3.1264665,4.045174
-37.32524,3.1296136,4.066821
-37.424747,3.1193025,4.072794
-37.521935,3.1104336,4.0809064
-37.559937,3.1247878,4.11664
-37.62971,3.1271312,4.138521
-37.735054,3.1164083,4.1455774
-37.851963,3.1019542,4.1488276
-38.00061,3.076466,4.1400113
-38.098984,3.0701861,4.153737
-38.235302,3.0507207,4.1530375
-38.383484,3.0278006,4.149131
-38.52063,3.0096369,4.151255
-38.71668,2.9716487,4.1321363
-38.87609,2.9475286,4.1292515
-38.976204,2.9446309,4.150309
-39.138157,2.9212592,4.149706
-39.337357,2.8863173,4.137522
-39.516502,2.859201,4.1347284
-39.69255,2.8341231,4.1350384
-39.912506,2.7957742,4.1223845
-40.076897,2.7765694,4.1308165
-40.30625,2.7376027,4.119788
-40.504364,2.7097907,4.121416
-40.73133,2.6741066,4.116186
-40.979088,2.6333113,4.1071243
-41.237656,2.5906432,4.097623
-41.455486,2.561724,4.10311
-41.670124,2.534956,4.111943
-41.91484,2.5004933,4.1146326
-42.20374,2.4545105,4.1078277
-42.482224,2.4131594,4.1071124
-42.81543,2.3577642,4.0950537
-43.145775,2.3050652,4.0875206
-43.52187,2.2414749,4.0721865
-43.83515,2.1973183,4.0765896
-44.177303,2.1470215,4.0775595
-44.475,2.110583,4.092767
-44.997833,2.015828,4.0599318
-45.50975,1.9269226,4.035499
-46.02957,1.8388522,4.0151806
-46.370304,1.7997124,4.0383663
-47.00061,1.6888597,4.0062056
-47.581955,1.593838,3.990911
-48.164574,1.5017285,3.9819307
-48.95771,1.361278,3.940279
-49.476967,1.2915311,3.957055
-16.411469,1.6577585,2.8661504
-16.69498,1.7007146,2.8735046
-16.78141,1.6821277,2.8158603
-17.023193,1.71415,2.8136997
-17.419012,1.7979758,2.8696156
-17.782778,1.8736465,2.918572
-18.03156,1.9131026,2.9290605
-18.144932,1.9082291,2.891058
-18.263624,1.9056692,2.8561773
-18.383152,1.9039328,2.8227673
-19.139528,2.1249735,3.0449939
-19.413654,2.181186,3.081091
-19.604149,2.2093155,3.0859451
-19.738037,2.218173,3.0691957
-19.922249,2.2460325,3.075357
-20.071955,2.2622895,3.0686593
-20.210865,2.2753658,3.0588522
-20.373604,2.29814,3.0612397
-20.522919,2.3167686,3.059371
-20.57149,2.2976556,3.012568
-20.598965,2.2704394,2.9560823
-20.605572,2.2349572,2.8895583
-20.683968,2.2275581,2.8574314
-20.827446,2.2464316,2.857985
-20.95363,2.259165,2.8515325
-21.089527,2.2765534,2.85139
-21.265064,2.3110428,2.8731847
-21.406569,2.3325117,2.8793669
-21.509445,2.338615,2.8667383
-21.633553,2.354257,2.8665934
-21.773685,2.3774889,2.876597
-21.87726,2.3857644,2.8680472
-21.994421,2.4005396,2.8682308
-22.103886,2.4126012,2.865368
-22.213013,2.4251356,2.863531
-22.343504,2.447931,2.8754258
-22.452623,2.4618254,2.8762221
-22.542236,2.4673913,2.866529
-22.66814,2.4902904,2.8799095
-22.751623,2.4940956,2.8686075
-22.841217,2.5012236,2.8619852
-22.922745,2.5049746,2.8511958
-22.951923,2.4838083,2.8075113
-22.965153,2.4547482,2.753335
-22.924118,2.39863,2.6628828
-22.9992,2.3996284,2.6489644
-22.955833,2.3412843,2.555263
-21.95504,1.7946045,1.8007646
-22.004923,1.7774861,1.7604942
-22.024967,1.7448914,1.6992855
-22.850035,2.1346374,2.2144423
-22.880985,2.1115892,2.1679392
-22.9123,2.0885997,2.121563
-22.91455,2.0497413,2.0533948
-22.904325,2.0035908,1.9750943
-22.87821,1.94804,1.8836641
-22.83939,1.884578,1.7810736
-22.971455,1.916559,1.8109922
-22.990517,1.8851225,1.7529254
-23.058514,1.8386748,1.6597872
-23.053753,1.7924206,1.580946
-23.060307,1.7522554,1.5105758
-23.052332,1.702848,1.427104
-23.032185,1.6453376,1.332058
-23.011757,1.5867705,1.2353492
-23.03598,1.5549848,1.1765237
-23.013445,1.493552,1.0754943
-23.011555,1.4442208,0.9915581
-23.02126,1.4015932,0.9171114
-23.013859,1.3473165,0.82592106
-23.020647,1.3014889,0.7467432
-23.02763,1.2551398,0.666749
-23.040018,1.2117372,0.5909362
-23.018427,1.1447532,0.48102522
-33.000294,1.5015252,0.5137596
-33.0274,1.5441775,0.5844755
-33.07525,1.5541861,0.6045995
-33.030437,1.7013195,0.83719635
-33.041115,1.762675,0.9367981
-33.040882,1.8376656,1.0574446
-33.028564,1.9272227,1.2005296
-33.081017,1.9245641,1.2010741
-33.02751,2.0659037,1.4239483
-33.039295,2.115669,1.5053568
-33.049255,2.1663878,1.588202
-33.03986,2.2406292,1.7072258
-33.063198,2.2711444,1.7588811
-33.03269,2.3681388,1.9127302
-33.047146,2.4070175,1.9771571
-33.095345,2.4040623,1.9773736
-33.09573,2.458363,2.0654607
-33.150715,2.447153,2.0531402
-33.17777,2.4687586,2.091154
-33.24643,2.4425502,2.0560899
-33.283264,2.4530187,2.0772114
-33.286606,2.500406,2.154725
-33.31459,2.5197837,2.1894865
-33.360867,2.5191681,2.1938272
-33.17975,2.7595568,2.5649147
-33.06653,2.9225461,2.8177009
-33.094425,2.935907,2.842884
-33.123993,2.9473884,2.8652554
-33.155285,2.9570045,2.8848429
-33.150864,3.001845,2.9577818
-33.181953,3.0110395,2.9767704
-33.20543,3.0274942,3.0067706
-33.23514,3.0377755,3.0274858
-33.29162,3.0228796,3.0103254
-33.295597,3.0571225,3.0672255
-33.321705,3.0704584,3.0926714
-33.34182,3.0890427,3.1260257
-33.36687,3.102938,3.152369
-33.394886,3.1140628,3.1745977
-33.424873,3.1233783,3.1941648
-33.45526,3.1323009,3.2131944
-33.492107,3.135714,3.2240639
-33.52894,3.139237,3.2351713
-33.565193,3.1433337,3.2472072
-33.607628,3.1424637,3.2519445
-33.65527,3.1375964,3.2508516
-33.69216,3.1416025,3.2630067
-33.733665,3.1420646,3.270002
-33.776394,3.1417522,3.275947
-33.820366,3.1406732,3.280861
-33.865616,3.138838,3.2847652
-33.910366,3.1376078,3.2896676
-33.95461,3.1369786,3.2955575
-34.000145,3.1356037,3.3004599
-34.047,3.133493,3.3043985
-34.09088,3.1337678,3.311933
-34.138557,3.131533,3.315918
-34.185093,3.1303484,3.3215494
-34.232986,3.128446,3.3262548
-34.282265,3.1258364,3.3300576
-34.32974,3.1247115,3.3361335
-34.377308,3.1237535,3.3425722
-34.42952,3.1199317,3.3450074
-34.479263,3.1180258,3.350337
-34.526478,3.118018,3.358519
-34.56845,3.1215994,3.3719606
-34.61175,3.1244667,3.3844848
-34.662476,3.122809,3.390668
-34.70585,3.125988,3.4038668
-34.751274,3.1280484,3.4155889
-34.814587,3.1193647,3.4122143
-34.842903,3.132225,3.4394674
-34.893284,3.13185,3.4481149
-34.946545,3.130002,3.4548306
-35.01118,3.1217573,3.452724
-35.04631,3.1310053,3.475297
-35.08133,3.1403575,3.4980974
-35.13056,3.1416802,3.5097952
-35.181286,3.1423712,3.5207553
-35.248024,3.1343827,3.5198345
-35.286556,3.1423068,3.5411143
-35.329407,3.1479583,3.55936
-35.374428,3.1525638,3.5762835
-35.40831,3.1632586,3.6016793
-35.421177,3.1850724,3.642353
-35.43817,3.2045293,3.6798077
-35.494785,3.2033467,3.6892285
-35.500748,3.2283626,3.734321
-35.53293,3.2398334,3.761085
-36.239098,2.9132411,3.3327098
-36.281284,2.9232,3.3590336
-36.273113,2.95799,3.4186954
-36.289963,2.9801881,3.461464
-36.302547,3.0042748,3.5067492
-36.307682,3.031714,3.556466
-36.315506,3.0576158,3.6041102
-36.3316,3.0794148,3.6463275
-36.352917,3.0986466,3.6851883
-36.370735,3.119378,3.7260385
-36.38983,3.1394012,3.7659822
-36.44569,3.1428158,3.7844229
-36.548508,3.1255922,3.7764091
-36.587513,3.1370666,3.8057027
-36.654133,3.136588,3.8198023
-36.755272,3.121544,3.8155675
-36.785156,3.1374998,3.851109
-36.83878,3.1434174,3.8740315
-36.967068,3.118319,3.858089
-37.03758,3.1179447,3.8736773
-37.05714,3.1387634,3.9159772
-37.12929,3.1381626,3.9317045
-37.177925,3.147337,3.959796
-37.31701,3.120726,3.9440432
-37.343697,3.1391783,3.9840508
-37.443428,3.1291673,3.9894667
-37.50834,3.1331131,4.0122137
-37.575825,3.1363428,4.0343547
-37.675205,3.127821,4.042685
-37.7679,3.1223273,4.0550566
-37.83126,3.1281466,4.081234
-37.94595,3.1154337,4.0858393
-38.009407,3.1219032,4.113427
-38.074566,3.128004,4.1408463
-38.206497,3.1106818,4.141448
-38.33263,3.0961385,4.1458683
-38.49005,3.071426,4.1392775
-38.600945,3.0636184,4.152625
-38.78147,3.0327091,4.140484
-38.925102,3.015277,4.1443167
-39.12014,2.9815283,4.1307483
-39.298767,2.9543357,4.125404
-39.42659,2.9447212,4.140195
-39.597992,2.9217234,4.141106
-39.782516,2.8954966,4.1394324
-40.010223,2.856688,4.1253023
-40.19403,2.8329065,4.1282983
-40.39381,2.805212,4.128172
-40.63163,2.7670197,4.1182165
-40.87013,2.7299836,4.1107655
-41.059624,2.7089405,4.120961
-41.326035,2.6661973,4.1102834
-41.60428,2.6215162,4.099188
-41.83975,2.5907748,4.1034937
-42.059963,2.5656834,4.114689
-42.36531,2.5177374,4.1050286
-42.717148,2.4585297,4.086406
-42.98021,2.4258342,4.0949893
-43.354347,2.364255,4.078164
-43.727585,2.3050365,4.065824
-44.012375,2.271493,4.079192
-44.350483,2.2254317,4.0830812
-44.825294,2.145618,4.0592012
-45.26818,2.076698,4.047904
-45.769913,1.9952754,4.028735
-46.222492,1.9290085,4.025713
-46.68077,1.8638129,4.0265913
-47.269608,1.7691064,4.0063734
-47.83684,1.6829045,3.9970274
-48.463593,1.5855823,3.9828067
-49.087814,1.492312,3.9761114
-49.759323,1.3914249,3.9680386
-16.380379,1.730511,2.8128257
-16.704103,1.7843697,2.8345132
-16.869308,1.790276,2.8045893
-17.333937,1.892194,2.8829346
-17.82005,2.0039232,2.97473
-17.944214,2.0011458,2.9389172
-18.029852,1.9862795,2.8898344
-18.156689,1.9853859,2.857204
-18.29411,1.9886327,2.8299394
-18.530674,2.0261734,2.843328
-19.198715,2.2129982,3.033248
-19.383837,2.2370985,3.0340466
-19.654491,2.2921984,3.072568
-19.806698,2.3070898,3.0642328
-19.983826,2.3317242,3.0682945
-20.136902,2.348696,3.0638676
-20.276556,2.3616188,3.0551767
-20.408943,2.3726227,3.0447316
-20.55049,2.3877497,3.0399156
-20.575836,2.3598926,2.9825249
-20.605022,2.3333807,2.926848
-20.626942,2.303983,2.8676233
-20.726524,2.3046138,2.8461213
-20.89107,2.331222,2.8577733
-21.027199,2.3475597,2.8570886
-21.160385,2.3634987,2.856441
-21.28897,2.3783393,2.854916
-21.432137,2.39988,2.8625011
-21.545753,2.410073,2.8560152
-21.698692,2.4373093,2.8720384
-21.797537,2.442693,2.86024
-21.926462,2.4614086,2.8662138
-22.041859,2.4750786,2.8660636
-22.162558,2.491725,2.8702593
-22.294943,2.5142312,2.8826466
-22.40182,2.5262506,2.8816247
-22.493124,2.5319016,2.8725123
-22.60335,2.546608,2.875812
-22.701262,2.5563388,2.8728385
-22.805984,2.5697746,2.8751888
-22.862343,2.5612378,2.8482542
-22.926598,2.5565984,2.8267603
-22.96123,2.5380802,2.7866092
-23.01009,2.5263755,2.755816
-22.970352,2.4716406,2.666329
-23.003025,2.451726,2.6243544
-22.913015,2.3707838,2.498507
-21.92095,1.8357008,1.7457852
-22.941803,2.310772,2.3864455
-21.99052,1.7855322,1.643331
-22.003822,1.7491274,1.5764337
-22.871231,2.1591125,2.1322465
-22.904095,2.1369376,2.086876
-22.907867,2.0991101,2.0196042
-22.89621,2.052512,1.9399362
-22.873035,1.9990072,1.8504076
-22.871428,1.9145601,1.7028193
-22.944729,1.9132109,1.686955
-23.029316,1.9185958,1.6808763
-23.038754,1.8812697,1.61409
-23.068531,1.8553014,1.5635042
-23.061037,1.8072577,1.4813027
-23.056522,1.760299,1.4005518
-23.030823,1.6999829,1.3004699
-23.052181,1.667223,1.2399726
-23.006733,1.5932043,1.1198082
-23.027655,1.5590062,1.0570955
-23.00888,1.4995866,0.9577532
-23.021944,1.459358,0.886178
-23.021828,1.4101789,0.8015156
-23.036465,1.3698082,0.72963095
-23.018507,1.307612,0.6257725
-23.037458,1.2687738,0.5560088
-33.012295,1.5359497,0.4690795
-33.01656,1.6131747,0.5949912
-33.065186,1.6216145,0.61268854
-33.021748,1.7647696,0.84212923
-33.05178,1.7973702,0.89776754
-33.048767,1.8757112,1.0251956
-33.0473,1.9494011,1.1452484
-33.07725,1.9779232,1.1944504
-33.030594,2.1083763,1.4032731
-33.044235,2.155218,1.4810615
-33.050346,2.2104745,1.5719805
-33.04982,2.2726028,1.6735845
-33.010807,2.381198,1.847652
-33.041943,2.3999753,1.881444
-33.052803,2.4429893,1.9530401
-33.08499,2.4593637,1.9831266
-33.1031,2.492016,2.0385756
-33.133217,2.509951,2.0711432
-33.175846,2.5132647,2.0810356
-33.207176,2.5293877,2.110878
-33.245235,2.5377808,2.1287742
-33.27961,2.5501566,2.1528983
-33.311066,2.5655184,2.1816926
-33.35044,2.5722396,2.1971684
-33.05273,2.9316494,2.7573705
-33.04182,2.9853415,2.8448963
-33.084496,2.9832175,2.8463097
-33.117256,2.99128,2.8634892
-33.15327,2.996083,2.875708
-33.16046,3.0290837,2.931312
-33.151196,3.077235,3.0101342
-33.20321,3.066041,2.9979005
-33.231358,3.077708,3.0207887
-33.2705,3.0790722,3.0279598
-33.307102,3.082904,3.0389762
-33.331215,3.0980854,3.067378
-33.350334,3.1175127,3.1022778
-33.371735,3.1346269,3.1336675
-33.399235,3.1461976,3.1566477
-33.430317,3.1545875,3.1748385
-33.46618,3.1589024,3.186902
-33.50146,3.1637824,3.1998906
-33.53059,3.173811,3.2207317
-33.575806,3.1706464,3.2216935
-33.63019,3.1603405,3.211987
-33.664917,3.1661422,3.2266726
-33.704178,3.1684196,3.2361236
-33.745193,3.169465,3.2438068
-33.787422,3.169743,3.2504277
-33.830303,3.169711,3.2566772
-33.875626,3.1680334,3.260563
-33.922253,3.1656199,3.2634544
-33.965977,3.165587,3.2700028
-34.012207,3.1639316,3.2742372
-34.05793,3.1628768,3.2794724
-34.1056,3.1606615,3.283094
-34.152138,3.1594882,3.2883744
-34.198143,3.1589124,3.2946486
-34.2455,3.1576264,3.299985
-34.292953,3.1565063,3.3056803
-34.34243,3.1542592,3.309836
-34.395912,3.1496122,3.3105936
-34.452168,3.1434524,3.3092742
-34.503384,3.1409123,3.313396
-34.554726,3.1385581,3.3179202
-34.602203,3.1389263,3.3265424
-34.65309,3.1373565,3.3324666
-34.68589,3.1472902,3.3552089
-34.758595,3.1326823,3.342494
-34.79821,3.1387439,3.3598485
-34.85428,3.1349957,3.3631563
-34.90635,3.1339319,3.3704796
-34.95434,3.135522,3.381751
-34.99608,3.14096,3.398656
-35.042007,3.1440945,3.412373
-35.096455,3.1425288,3.4195094
-35.129616,3.1532624,3.4442863
-35.18129,3.1536546,3.4544663
-35.23953,3.150642,3.4599695
-35.280487,3.1573966,3.4794288
-35.346935,3.1504343,3.47968
-35.376907,3.163433,3.508165
-35.398567,3.1808228,3.5428596
-35.451122,3.1818643,3.5547466
-35.492542,3.1889253,3.5751715
-35.542152,3.191876,3.5899944
-36.27812,2.845264,3.1207318
-36.26539,2.8836143,3.1861286
-36.264923,2.9153488,3.2422967
-36.270023,2.9439716,3.2941246
-36.273865,2.9729164,3.3463497
-36.283394,2.9988048,3.3943558
-36.293262,3.0242908,3.44179
-36.302704,3.04975,3.4891663
-36.321926,3.0703897,3.530005
-36.329773,3.0961833,3.577805
-36.34987,3.1161106,3.617701
-36.368057,3.1367908,3.6586285
-36.4179,3.1430764,3.6803823
-36.508663,3.1312728,3.678259
-36.5707,3.1326878,3.6939654
-36.6093,3.14462,3.7237482
-36.673782,3.145412,3.739006
-36.76939,3.1331644,3.7374268
-36.793926,3.1516025,3.7762003
-36.91707,3.1286035,3.7612405
-37.02254,3.1137276,3.7572718
-37.027863,3.1406453,3.8075094
-37.084457,3.1464777,3.8306866
-37.15191,3.1481466,3.8487492
-37.284134,3.1242929,3.8346424
-37.33505,3.1333404,3.8626842
-37.399426,3.1372871,3.8844824
-37.508865,3.124083,3.8850412
-37.549522,3.137807,3.9196117
-37.62768,3.1374073,3.9368
-37.742023,3.1238189,3.9380302
-37.810127,3.1280155,3.9615734
-37.905922,3.1223333,3.9733255
-37.96369,3.1309483,4.002837
-38.055363,3.1275823,4.0181074
-38.159416,3.1202688,4.0290318
-38.166317,3.147674,4.0818305
-38.360214,3.1098032,4.057193
-38.414528,3.1212063,4.0915456
-38.54043,3.1083777,4.097734
-38.592915,3.120988,4.134103
-38.72275,3.1079445,4.1410284
-38.861828,3.0925536,4.1458745
-39.064877,3.0570374,4.1284475
-39.181442,3.0506592,4.1450105
-39.36669,3.0229263,4.1381416
-39.529896,3.0032222,4.141158
-39.77327,2.959356,4.118267
-39.92295,2.9459014,4.1300187
-40.141273,2.912249,4.120545
-40.36206,2.8790994,4.1127653
-40.551414,2.8566077,4.1175594
-40.806408,2.8157365,4.1038704
-41.00415,2.7930727,4.1107006
-41.250313,2.7574792,4.105144
-41.449947,2.736574,4.116088
-41.71581,2.6980155,4.11012
-42.007446,2.6537416,4.099886
-42.232784,2.6294298,4.111266
-42.52764,2.5873396,4.106368
-42.899933,2.5259857,4.0843782
-43.178543,2.491744,4.0907793
-43.539467,2.4373102,4.07958
-43.86644,2.3937397,4.0807996
-44.165813,2.3590667,4.0922847
-44.58863,2.2945993,4.078289
-45.146935,2.1984332,4.0382905
-45.52736,2.1495967,4.044043
-46.064434,2.0644035,4.020315
-46.454197,2.0178924,4.0335155
-47.010643,1.9335914,4.0171375
-47.576904,1.8500454,4.005106
-48.15583,1.7666557,3.9970236
-48.93057,1.641324,3.9590888
-49.706062,1.5201187,3.9297996
-16.241692,1.8270063,2.8187218
-16.638102,1.8996189,2.8633432
-16.750633,1.8881712,2.8145313
-16.901299,1.8889203,2.780169
-17.354431,1.9845481,2.8558435
-17.792208,2.0781565,2.9314222
-17.944345,2.0836003,2.906097
-18.158955,2.109904,2.9060059
-18.225636,2.0892992,2.851335
-18.42611,2.1128528,2.849566
-18.567455,2.1178753,2.826468
-19.1837,2.2831678,2.9974918
-19.602697,2.3856313,3.0951276
-19.672382,2.3709435,3.0515718
-19.869295,2.4006166,3.0627856
-20.009632,2.4116106,3.0517778
-20.174887,2.432186,3.0532627
-20.295387,2.437673,3.0365996
-20.443335,2.4537094,3.0336685
-20.546053,2.4540262,3.0115075
-20.574814,2.4274848,2.9556746
-20.60226,2.4003649,2.899159
-20.643757,2.378448,2.8493547
-20.785767,2.3948903,2.8490171
-20.916336,2.407731,2.8445854
-21.062546,2.4273922,2.849513
-21.186417,2.4391198,2.844666
-21.330847,2.459711,2.8518982
-21.455587,2.473254,2.8504157
-21.574963,2.4853258,2.847458
-21.726206,2.5111465,2.8631716
-21.83155,2.5188875,2.8553934
-21.950556,2.5329173,2.8563943
-22.074055,2.549542,2.861308
-22.204416,2.5698395,2.871616
-22.303509,2.577433,2.865231
-22.40394,2.5861506,2.860713
-22.513702,2.5995407,2.8628974
-22.612698,2.6087804,2.8597965
-22.69947,2.6130729,2.8502526
-22.801863,2.6249201,2.851378
-22.85823,2.6162143,2.8245053
-22.923288,2.6117132,2.8036075
-22.959469,2.593918,2.764453
-22.988144,2.5725408,2.7203884
-22.963861,2.5256965,2.6408138
-22.982704,2.4990933,2.5894165
-22.959934,2.4519324,2.5091548
-22.901524,2.3865218,2.4030356
-22.766418,2.281807,2.2411137
-22.889336,2.3054116,2.260305
-22.906055,2.275734,2.2042408
-22.888277,2.2280164,2.122487
-22.849901,2.1689296,2.024366
-22.871588,2.1405368,1.969944
-22.88789,2.109038,1.9110756
-22.863945,2.055616,1.8206663
-22.929375,2.0499148,1.7988796
-22.98112,2.0369406,1.7667508
-23.01655,2.0150013,1.7217531
-23.043785,1.988354,1.6699753
-23.042461,1.9453232,1.5943851
-23.051079,1.9074063,1.5261688
-23.089731,1.8863916,1.4826045
-23.04746,1.8179874,1.3697076
-23.032759,1.7647426,1.2788262
-23.03622,1.7215416,1.2025814
